# .PCD v0.7 - Point Cloud Data file format
VERSION 0.7
FIELDS x y z intensity
SIZE 4 4 4 4
TYPE F F F F
COUNT 1 1 1 1
WIDTH 1414
HEIGHT 1
VIEWPOINT 0 0 0 1 0 0 0
POINTS 1414
DATA ascii
-6.3360629 25.57641 -0.57042038 0
-6.6632762 26.897255 -0.42845199 0
-6.9444346 28.032188 -0.26790467 0
-7.1738577 28.958288 -0.092249468 0
-0.21124056 0.80990404 -0.34669623 1
-1.4367542 5.5085683 -2.3169155 0
-1.45889 5.5934377 -2.3110459 0
-1.4784083 5.6682715 -2.3000515 0
-1.5008585 5.7543468 -2.2926342 0
-1.5310054 5.8699307 -2.2956958 0
-1.5532284 5.9551344 -2.2856088 0
-1.576149 6.0430126 -2.2754886 0
-1.6040854 6.1501226 -2.2713957 0
-1.6278832 6.2413635 -2.2602084 0
-1.6505731 6.3283577 -2.246398 0
-1.6775115 6.4316401 -2.2372022 0
-1.7056365 6.5394731 -2.2282777 0
-1.7387843 6.666563 -2.2244396 0
-1.766204 6.7716908 -2.211822 0
-1.7975992 6.8920612 -2.2027843 0
-1.8272107 7.0055928 -2.1901073 0
-1.8576211 7.1221871 -2.1769655 0
-1.8920475 7.2541795 -2.1669834 0
-1.9260263 7.3844557 -2.1548522 0
-1.9623582 7.5237536 -2.1436715 0
-2.0081272 7.6992331 -2.1408117 0
-2.0396924 7.8202558 -2.1209526 0
-2.0825403 7.9845357 -2.1110506 0
-2.1193447 8.1256456 -2.0931146 0
-2.1613894 8.2868452 -2.0784719 0
-2.2052774 8.4551144 -2.0635407 0
-2.2485242 8.620924 -2.0459218 0
-2.3031096 8.8302069 -2.0362616 0
-2.3507252 9.0127659 -2.0179727 0
-2.4042385 9.2179384 -2.0023146 0
-2.4413917 9.3603859 -1.9708709 0
-2.5010197 9.5890017 -1.955258 0
-2.5610113 9.8190107 -1.9370395 0
-2.6259303 10.067913 -1.9195293 0
-2.6894526 10.31146 -1.8978956 0
-2.7585452 10.576364 -1.8769897 0
-2.8303668 10.85173 -1.8545339 0
-2.9038897 11.133619 -1.8296797 0
-2.9895694 11.462119 -1.8086294 0
-3.0737317 11.7848 -1.7825434 0
-3.1349418 12.019482 -1.7396474 0
-3.2060699 12.29219 -1.6990844 0
-3.279274 12.572857 -1.6561539 0
-3.3521938 12.852434 -1.6095697 0
-3.429775 13.149883 -1.5616068 0
-3.5070231 13.446055 -1.5097691 0
-3.5982456 13.795806 -1.4598875 0
-3.6716635 14.077292 -1.398818 0
-3.7766862 14.479953 -1.3454847 0
-3.8883352 14.908019 -1.2892637 0
-4.0073919 15.364488 -1.2299056 0
-4.1534386 15.924435 -1.1723906 0
-4.4224401 16.955797 -1.1394516 0
-4.7319236 18.142368 -1.1027957 0
-5.0780053 19.469257 -1.0586343 0
-5.4318027 20.825731 -0.99896544 0
-5.8246379 22.331875 -0.92821789 0
-6.1096621 23.424667 -0.82372272 0
-6.3722253 24.431345 -0.70282853 0
-6.6536441 25.510315 -0.57072788 0
-7.0021672 26.846565 -0.42898363 0
-7.3052583 28.008627 -0.2685177 0
-7.5597014 28.984171 -0.092621043 0
-0.22739431 0.82991546 -0.35643253 1
-1.5060694 5.496665 -2.3195226 0
-1.5280837 5.5770102 -2.3118472 0
-1.552772 5.6671147 -2.3071551 0
-1.5778481 5.7586341 -2.3018985 0
-1.5970908 5.8288636 -2.2871423 0
-1.6255373 5.9326839 -2.2844913 0
-1.6503229 6.0231438 -2.2754762 0
-1.6756947 6.1157422 -2.2661369 0
-1.6988769 6.2003493 -2.2527504 0
-1.7331839 6.3255591 -2.2527993 0
-1.7586507 6.4185047 -2.2399859 0
-1.7901723 6.5335484 -2.2335908 0
-1.8186189 6.6373692 -2.2219923 0
-1.847446 6.742579 -2.2095661 0
-1.8835888 6.8744884 -2.2044036 0
-1.9186916 7.0026026 -2.196382 0
-1.9516203 7.1227818 -2.1843171 0
-1.988427 7.2571139 -2.1749995 0
-2.0194256 7.3702483 -2.1577895 0
-2.0572631 7.5083432 -2.1463261 0
-2.0937996 7.6416898 -2.1318092 0
-2.1364229 7.7972503 -2.1216779 0
-2.1777203 7.9479728 -2.1083043 0
-2.2163496 8.0889568 -2.0905261 0
-2.260453 8.2499199 -2.076025 0
-2.3036127 8.4074392 -2.0586629 0
-2.3562179 8.599431 -2.0475421 0
-2.4021018 8.7668924 -2.0283191 0
-2.4571941 8.9679623 -2.0145538 0
-2.511991 9.1679525 -1.9980153 0
-2.5699472 9.3794737 -1.9813941 0
-2.6321766 9.6065912 -1.9652959 0
-2.694617 9.8344784 -1.9464803 0
-2.7593367 10.070684 -1.9263811 0
-2.8271956 10.318347 -1.9054178 0
-2.8812063 10.515469 -1.8723286 0
-2.9587851 10.798606 -1.8515329 0
-3.0380874 11.088034 -1.8281894 0
-3.12304 11.398083 -1.8044482 0
-3.2116392 11.721441 -1.7787991 0
-3.3042774 12.059542 -1.7511938 0
-3.3784375 12.330201 -1.7099515 0
-3.433893 12.532596 -1.6562873 0
-3.5116732 12.816468 -1.6103517 0
-3.5893199 13.099854 -1.560789 0
-3.6750364 13.412691 -1.5109828 0
-3.7701039 13.759657 -1.4608575 0
-3.8778555 14.152915 -1.410964 0
-3.9650583 14.471177 -1.3490977 0
-4.0818172 14.897309 -1.2925805 0
-4.2073045 15.355297 -1.233218 0
-4.3482733 15.869787 -1.1722151 0
-4.6914768 17.12237 -1.154435 0
-4.9388165 18.02508 -1.0992745 0
-5.3063555 19.366476 -1.0565137 0
-5.6749587 20.71176 -0.99677044 0
-6.088551 22.221237 -0.92666101 0
-6.4004998 23.359749 -0.82414514 0
-6.6714292 24.348553 -0.70275366 0
-6.9759922 25.46011 -0.57148057 0
-7.3493438 26.822721 -0.43001416 0
-7.6619143 27.963503 -0.26896799 0
-0.23689297 0.82466036 -0.35539973 1
-1.5760617 5.4865098 -2.3232398 0
-1.5982746 5.5638361 -2.3143582 0
-1.6258634 5.6598773 -2.3121731 0
-1.6482936 5.7379599 -2.3015623 0
-1.6727262 5.8230138 -2.2927442 0
-1.6977367 5.910079 -2.2836528 0
-1.7246808 6.0038753 -2.2760367 0
-1.7564734 6.1145501 -2.2735264 0
-1.778065 6.189714 -2.2566593 0
-1.8085345 6.295783 -2.2499449 0
-1.8426011 6.4143739 -2.2462819 0
-1.870573 6.5117488 -2.2338328 0
-1.9020501 6.621325 -2.2242827 0
-1.9344195 6.7340078 -2.214385 0
-1.9637955 6.8362703 -2.1997256 0
-1.9972316 6.9526663 -2.188257 0
-2.0371189 7.0915198 -2.1822472 0
-2.0730112 7.2164664 -2.1702929 0
-2.1090198 7.3418179 -2.1568954 0
-2.1591666 7.516387 -2.1560521 0
-2.1986752 7.6539211 -2.1426017 0
-2.2371008 7.7876868 -2.1264 0
-2.2827539 7.9466124 -2.1152294 0
-2.3249798 8.0936069 -2.0989578 0
-2.371779 8.2565222 -2.0848677 0
-2.4187927 8.4201841 -2.0689101 0
-2.4560597 8.5499163 -2.0427892 0
-2.5101085 8.7380686 -2.0286381 0
-2.5631185 8.9226046 -2.0112927 0
-2.6224856 9.1292706 -1.9964619 0
-2.6811345 9.3334351 -1.9784834 0
-2.7436974 9.5512266 -1.9607233 0
-2.8094945 9.7802773 -1.9424433 0
-2.8790803 10.022515 -1.9237937 0
-2.949235 10.266734 -1.9024398 0
-3.0288832 10.544003 -1.8838985 0
-3.1068318 10.815352 -1.860814 0
-3.1708307 11.038142 -1.8262539 0
-3.2563457 11.335834 -1.8007963 0
-3.3489759 11.658294 -1.7753311 0
-3.4435043 11.987361 -1.746729 0
-3.5253658 12.272333 -1.707809 0
-3.607909 12.559678 -1.6656038 0
-3.6668458 12.764847 -1.6094092 0
-3.7508018 13.05711 -1.5610733 0
-3.8406959 13.370046 -1.5113845 0
-3.9455695 13.735126 -1.4632934 0
-4.061172 14.137557 -1.4143044 0
-4.1478915 14.439441 -1.3507919 0
-4.2682509 14.858429 -1.293663 0
-4.4009566 15.320398 -1.234668 0
-4.5459967 15.825305 -1.1729698 0
-4.8966837 17.046099 -1.153265 0
-5.1516838 17.933792 -1.0974877 0
-5.5438042 19.298822 -1.0564619 0
-5.9122262 20.581356 -0.99391824 0
-6.3460193 22.091455 -0.92443323 0
-6.7534895 23.50992 -0.8323102 0
-6.9700475 24.263792 -0.70272785 0
-7.2981939 25.40612 -0.57223982 0
-7.6882792 26.764067 -0.43055689 0
-8.0332317 27.964899 -0.26991114 0
-0.24713506 0.82208562 -0.35557288 1
-1.6457357 5.4744792 -2.3265388 0
-1.6690747 5.5521154 -2.3178446 0
-1.6893032 5.6194048 -2.303951 0
-1.718392 5.7161674 -2.3011227 0
-1.7431586 5.7985525 -2.2913795 0
-1.7752254 5.9052219 -2.2900376 0
-1.7961137 5.9747062 -2.2731798 0
-1.8303641 6.0886383 -2.2720888 0
-1.8583217 6.1816382 -2.2618752 0
-1.8890463 6.283843 -2.2538087 0
-1.9229134 6.3965006 -2.2481329 0
-1.944809 6.4693351 -2.2273183 0
-1.9847565 6.6022191 -2.2258947 0
-2.023325 6.7305155 -2.2212501 0
-2.0538342 6.8320031 -2.2063122 0
-2.0908515 6.9551406 -2.1969616 0
-2.1303232 7.0864415 -2.18858 0
-2.1632285 7.1958995 -2.1719432 0
-2.2057312 7.3372836 -2.1633677 0
-2.2471836 7.4751735 -2.1519938 0
-2.2847431 7.6001129 -2.135242 0
-2.3302257 7.75141 -2.1241579 0
-2.3728821 7.8933048 -2.1086471 0
-2.4173954 8.0413761 -2.0929632 0
-2.4674551 8.2078981 -2.0800939 0
-2.5197372 8.381813 -2.0669386 0
-2.5684025 8.5436964 -2.0486939 0
-2.6283312 8.7430468 -2.037143 0
-2.6854842 8.9331636 -2.0209639 0
-2.7480993 9.1414509 -2.0063639 0
-2.8061523 9.3345623 -1.9858865 0
-2.8609293 9.5167751 -1.9607245 0
-2.9229224 9.7229929 -1.938058 0
-2.999651 9.9782276 -1.9222275 0
-3.0718751 10.218479 -1.9003538 0
-3.1514137 10.483062 -1.8797917 0
-3.2299583 10.744337 -1.8552887 0
-3.3238745 11.056746 -1.8359553 0
-3.4159603 11.363066 -1.8116581 0
-3.4867265 11.598467 -1.7726157 0
-3.5905626 11.943874 -1.7466937 0
-3.678323 12.235806 -1.7088909 0
-3.7658701 12.527028 -1.6672888 0
-3.8467796 12.79617 -1.6192 0
-3.9151254 13.02352 -1.562695 0
-4.0121255 13.346187 -1.5141499 0
-4.1254454 13.723142 -1.4673102 0
-4.2388811 14.100482 -1.4157028 0
-4.3617535 14.509212 -1.3622333 0
-4.4632058 14.84669 -1.2973212 0
-4.6041965 15.315689 -1.2387575 0
-4.7498498 15.8002 -1.1753492 0
-5.09482 16.947731 -1.1507614 0
-5.4626946 18.171452 -1.116058 0
-5.776443 19.215124 -1.0556886 0
-6.1566582 20.479895 -0.99259943 0
-6.6039281 21.967724 -0.92258388 0
-7.0415878 23.423582 -0.83225602 0
-7.2730083 24.193394 -0.70322591 0
-7.6279459 25.374079 -0.57358742 0
-8.0334425 26.72295 -0.43145198 0
-8.4189501 28.005325 -0.27127999 0
-0.25524142 0.81267124 -0.35283178 1
-0.26399946 0.84055626 -0.35857126 1
-1.7383597 5.5348186 -2.3193722 0
-1.7636997 5.6154995 -2.3110669 0
-1.7893132 5.697051 -2.3021104 0
-1.8127778 5.7717609 -2.2894278 0
-1.8427172 5.8670859 -2.2838628 0
-1.8786205 5.9813995 -2.2843425 0
-1.9031398 6.0594673 -2.2697642 0
-1.9328023 6.1539106 -2.2602549 0
-1.9691495 6.2696376 -2.2572277 0
-2.0020354 6.3743443 -2.2488282 0
-2.036927 6.4854369 -2.2413158 0
-2.0712023 6.5945668 -2.2317326 0
-2.1025171 6.6942716 -2.2176533 0
-2.1361821 6.8014579 -2.2047639 0
-2.1751492 6.9255271 -2.1958899 0
-2.2109077 7.0393796 -2.1822765 0
-2.2508233 7.1664677 -2.1712494 0
-2.2929864 7.3007121 -2.1607349 0
-2.3331511 7.4285936 -2.1466811 0
-2.376684 7.5671997 -2.1340444 0
-2.4203405 7.7061992 -2.1197641 0
-2.4678855 7.8575792 -2.1070507 0
-2.5129864 8.0011778 -2.0903852 0
-2.5608428 8.1535482 -2.0741436 0
-2.6165695 8.3309784 -2.0621812 0
-2.6707866 8.503603 -2.0468001 0
-2.7285135 8.6874008 -2.0318413 0
-2.7911515 8.8868361 -2.0180953 0
-2.8522472 9.0813608 -2.0007217 0
-2.919795 9.2964287 -1.9852619 0
-2.9895277 9.5184526 -1.968495 0
-3.0581086 9.7368097 -1.9481602 0
-3.1331971 9.9758854 -1.9290524 0
-3.1987698 10.184665 -1.9012365 0
-3.2699866 10.411414 -1.8740127 0
-3.364192 10.711358 -1.8565968 0
-3.4514542 10.989194 -1.8316472 0
-3.550669 11.305087 -1.8092387 0
-3.6520252 11.6278 -1.7838269 0
-3.7323968 11.883697 -1.7444732 0
-3.8336556 12.206099 -1.7111963 0
-3.9160886 12.468558 -1.66579 0
-4.0088477 12.763898 -1.6212314 0
-4.0991278 13.051344 -1.5719628 0
-4.186615 13.329897 -1.5180277 0
-4.2968273 13.680805 -1.4683218 0
-4.4225612 14.081133 -1.4191129 0
-4.5521755 14.493816 -1.3659401 0
-4.6926107 14.940953 -1.3105011 0
-4.8046598 15.297709 -1.2419878 0
-4.954617 15.775162 -1.1779298 0
-5.2938762 16.855341 -1.1488214 0
-5.6920033 18.12295 -1.1172934 0
-6.0047541 19.118727 -1.0543694 0
-6.3903799 20.346535 -0.98986948 0
-6.8574977 21.833805 -0.92043138 0
-7.3361697 23.357864 -0.83306324 0
-7.5701027 24.102692 -0.70324206 0
-7.9554648 25.329659 -0.57475114 0
-8.3786755 26.677132 -0.43234298 0
-8.8101282 28.050846 -0.27274972 0
-0.26767886 0.81699347 -0.35611045 1
-0.27071685 0.82626587 -0.35386845 1
-1.8024235 5.5012498 -2.3144178 0
-1.8313168 5.5894365 -2.3094337 0
-1.8626062 5.6849356 -2.3062954 0
-1.8859763 5.7562647 -2.2923067 0
-1.9178065 5.853415 -2.2875481 0
-1.9533231 5.9618168 -2.2858639 0
-1.9844836 6.0569229 -2.2777796 0
-2.0148244 6.1495271 -2.2675731 0
-2.0450177 6.2416816 -2.2560456 0
-2.0738685 6.3297386 -2.2419188 0
-2.1086867 6.4360085 -2.233026 0
-2.1425712 6.5394282 -2.2218206 0
-2.1888013 6.6805296 -2.221849 0
-2.2257903 6.7934251 -2.210865 0
-2.2612629 6.9016924 -2.1969831 0
-2.301893 7.0257015 -2.1866457 0
-2.3506386 7.1744795 -2.1822691 0
-2.3908644 7.2972546 -2.1682487 0
-2.4288247 7.4131141 -2.1506758 0
-2.4813447 7.5734129 -2.1442392 0
-2.5261919 7.7102933 -2.1292739 0
-2.5727067 7.8522625 -2.1139483 0
-2.6187165 7.992691 -2.0964222 0
-2.6766152 8.1694059 -2.0863924 0
-2.7264543 8.3215218 -2.0679827 0
-2.787674 8.5083723 -2.0560436 0
-2.8519971 8.7046957 -2.0439339 0
-2.8956556 8.8379478 -2.0149267 0
-2.9570627 9.0253716 -1.9962466 0
-3.0250871 9.2329912 -1.9795089 0
-3.0955739 9.4481268 -1.9616748 0
-3.1749711 9.6904583 -1.9465504 0
-3.2555566 9.9364166 -1.9290154 0
-3.3332002 10.173395 -1.9066399 0
-3.4221351 10.444838 -1.8874604 0
-3.4923687 10.659201 -1.8548596 0
-3.5850196 10.941983 -1.8309875 0
-3.6830263 11.241114 -1.8061118 0
-3.787791 11.560871 -1.7805701 0
-3.9023118 11.910404 -1.7553051 0
-3.9821339 12.154033 -1.7106324 0
-4.0727715 12.430672 -1.6672931 0
-4.163929 12.708897 -1.6206262 0
-4.2663269 13.02143 -1.5745595 0
-4.382525 13.376082 -1.5293087 0
-4.47928 13.671392 -1.4731116 0
-4.6070414 14.061338 -1.4227197 0
-4.7380576 14.461218 -1.3682551 0
-4.8828697 14.903204 -1.3123573 0
-5.006671 15.281063 -1.2455405 0
-5.1639166 15.761 -1.1815243 0
-5.5087938 16.813612 -1.1505071 0
-5.928339 18.094124 -1.1199257 0
-6.2321739 19.021471 -1.0531526 0
-6.6285167 20.231165 -0.98814738 0
-7.1079144 21.694355 -0.91816783 0
-7.627686 23.280769 -0.83359581 0
-7.8741384 24.032978 -0.70397985 0
-8.2770357 25.262676 -0.57549721 0
-5.6762514 17.324717 -0.28188291 0
-9.2082453 28.104858 -0.27435514 0
-0.27657935 0.81034541 -0.35466829 1
-0.28261286 0.82802284 -0.35608232 1
-1.8768202 5.4988651 -2.3229482 0
-1.9042712 5.5792937 -2.3147428 0
-1.9305582 5.6563115 -2.3041394 0
-1.9662728 5.760951 -2.3036273 0
-1.9947261 5.844316 -2.2934046 0
-2.0243132 5.9310026 -2.2834206 0
-2.0527401 6.0142903 -2.2710679 0
-2.0881221 6.1179557 -2.2652283 0
-2.1252654 6.2267809 -2.2599347 0
-2.159497 6.327076 -2.2502108 0
-2.1947908 6.4304824 -2.240303 0
-2.2322741 6.5403042 -2.2312758 0
-2.2674706 6.6434255 -2.2186141 0
-2.3131721 6.7773256 -2.214715 0
-2.3466177 6.8753176 -2.1976063 0
-2.3887599 6.9987893 -2.1872463 0
-2.4312773 7.1233602 -2.1756492 0
-2.4788055 7.2626128 -2.1668484 0
-2.5240815 7.3952661 -2.1543393 0
-2.5720875 7.5359178 -2.142416 0
-2.612046 7.6529913 -2.122159 0
-2.6712804 7.8265414 -2.1157069 0
-2.7195601 7.9679956 -2.0985575 0
-2.7721438 8.1220598 -2.0828488 0
-2.8310823 8.2947426 -2.0698225 0
-2.888957 8.4643087 -2.0538247 0
-2.9545703 8.6565475 -2.0410049 0
-3.0167587 8.8387527 -2.0234144 0
-3.0868173 9.0440159 -2.0086141 0
-3.1560266 9.2467918 -1.9906373 0
-3.2162836 9.423337 -1.9645907 0
-3.2925506 9.6467905 -1.9457644 0
-3.3690214 9.870842 -1.9241819 0
-3.4584479 10.132851 -1.9068671 0
-3.5512052 10.404619 -1.8879408 0
-3.6425822 10.672343 -1.8648 0
-3.7173893 10.89152 -1.8300537 0
-3.8211207 11.19544 -1.8061861 0
-3.9312336 11.518058 -1.7812868 0
-4.048871 11.862721 -1.7554824 0
-4.1566401 12.178473 -1.7211361 0
-4.2351117 12.408386 -1.6711625 0
-4.3300786 12.686627 -1.6244534 0
-4.4365935 12.998704 -1.5782889 0
-4.557714 13.353573 -1.5330269 0
-4.6848946 13.726197 -1.485112 0
-4.7876039 14.027124 -1.4251066 0
-4.9368749 14.464471 -1.3742028 0
-5.0891881 14.91073 -1.3184309 0
-5.2386389 15.348603 -1.2562013 0
-5.3586898 15.700339 -1.1818272 0
-5.7208734 16.761494 -1.1516674 0
-6.1705961 18.07913 -1.1236091 0
-6.549304 19.1887 -1.0667896 0
-6.8718233 20.133644 -0.98743671 0
-7.359221 21.561663 -0.91631258 0
-7.9011116 23.14934 -0.83230573 0
-8.1870832 23.987204 -0.70553458 0
-6.1888413 18.132586 -0.41477221 0
-5.7507563 16.849049 -0.27527326 0
-5.8291287 17.078671 -0.16740631 0
-5.8917632 17.262182 -0.056400262 0
-5.7775841 16.92765 0.055307254 0
-5.8953133 17.272583 0.16930705 0
-0.28614655 0.80582595 -0.35420346 1
-0.29208934 0.82256156 -0.35525146 1
-1.9411266 5.466465 -2.319169 0
-1.9752884 5.5626688 -2.3177474 0
-2.0071483 5.652391 -2.3124213 0
-2.0348246 5.7303309 -2.3012145 0
-2.0659308 5.8179302 -2.292846 0
-2.1013534 5.9176841 -2.2880681 0
-2.1367905 6.0174804 -2.2820215 0
-2.1675229 6.1040268 -2.2697678 0
-2.2051826 6.2100811 -2.2635441 0
-2.237577 6.3013077 -2.2506616 0
-2.2746308 6.4056563 -2.2412288 0
-2.3112147 6.5086813 -2.2300143 0
-2.3478446 6.6118355 -2.2175384 0
-2.3995831 6.7575383 -2.2177234 0
-2.4393585 6.8695507 -2.205184 0
-2.4826953 6.9915934 -2.1943722 0
-2.5264783 7.1148911 -2.1823862 0
-2.5763991 7.255475 -2.1740067 0
-2.6213534 7.3820724 -2.1597226 0
-2.6686852 7.5153651 -2.14574 0
-2.7217081 7.6646843 -2.1345205 0
-2.7748628 7.8143744 -2.1214812 0
-2.8258288 7.9579015 -2.1048915 0
-2.86993 8.0820961 -2.0814929 0
-2.9307585 8.253397 -2.068342 0
-2.9924803 8.4272137 -2.0535972 0
-3.0529103 8.597393 -2.0357547 0
-3.1274409 8.8072805 -2.0248604 0
-3.1917622 8.9884176 -2.0048311 0
-3.2679753 9.203043 -1.9897197 0
-3.3410053 9.4087057 -1.9699563 0
-3.4285188 9.6551552 -1.9558071 0
-3.4961092 9.8454981 -1.9274763 0
-3.5801592 10.082194 -1.9054749 0
-3.6740692 10.346657 -1.8854786 0
-3.769763 10.616143 -1.8629389 0
-3.87923 10.924417 -1.8434567 0
-3.9600363 11.151978 -1.8068935 0
-4.0719204 11.467058 -1.7810084 0
-4.1870255 11.791208 -1.7523862 0
-4.3097615 12.136849 -1.7226129 0
-4.4074578 12.411975 -1.6788181 0
-4.4863901 12.634258 -1.6246889 0
-4.6048479 12.967851 -1.5812984 0
-4.7339373 13.331384 -1.537046 0
-4.86482 13.699966 -1.4886336 0
-4.974535 14.008938 -1.4293655 0
-5.1261363 14.435866 -1.3773696 0
-5.2726192 14.848382 -1.3185512 0
-5.4229069 15.271611 -1.2552625 0
-5.5709476 15.688514 -1.1860038 0
-5.9373918 16.720469 -1.1537777 0
-6.3977718 18.016958 -1.1245494 0
-6.7847281 19.106676 -1.0667871 0
-7.1093922 20.020973 -0.98612374 0
-7.6158023 21.44709 -0.91535413 0
-8.1751404 23.022259 -0.8312881 0
-6.5507741 18.447832 -0.54493332 0
-6.5081062 18.327673 -0.42103347 0
-5.7691488 16.246674 -0.26657072 0
-5.8730125 16.539167 -0.16281363 0
-5.9827342 16.848158 -0.055283714 0
-5.8341327 16.429676 0.053910553 0
-5.9315529 16.704025 0.1644365 0
-6.0577269 17.059347 0.27990484 0
-6.2554078 17.616043 0.40468547 0
-6.0810227 17.12495 0.50585657 0
-6.2162304 17.505714 0.63209659 0
-6.027452 16.974089 0.72444803 0
-0.29638964 0.80321318 -0.35463017 1
-0.30271852 0.82036442 -0.35588324 1
-2.0163822 5.4643769 -2.3286262 0
-2.0405431 5.5298529 -2.3143539 0
-2.0738251 5.6200471 -2.3094473 0
-2.1078258 5.7121882 -2.304163 0
-2.1345313 5.7845602 -2.2898657 0
-2.1691847 5.8784709 -2.283047 0
-2.2012832 5.9654574 -2.2723861 0
-2.2348549 6.0564361 -2.2621191 0
-2.2859216 6.1948266 -2.2680578 0
-2.3173308 6.2799454 -2.2530389 0
-2.3560975 6.3850021 -2.2439694 0
-2.3988326 6.500814 -2.2372561 0
-2.4378412 6.6065273 -2.2256436 0
-2.4737494 6.7038383 -2.2099156 0
-2.5251517 6.8431382 -2.206506 0
-2.5714135 6.9685068 -2.1968844 0
-2.613379 7.0822334 -2.1820607 0
-2.6567101 7.1996598 -2.1669073 0
-2.7106104 7.3457294 -2.1586783 0
-2.7556717 7.467845 -2.141685 0
-2.8112478 7.6184559 -2.1311121 0
-2.8659043 7.7665744 -2.1179113 0
-2.9256053 7.9283633 -2.1064346 0
-2.9797323 8.0750465 -2.0889559 0
-3.0410948 8.2413387 -2.0745344 0
-3.1056538 8.4162931 -2.0600863 0
-3.1611614 8.5667191 -2.0375416 0
-3.222219 8.7321835 -2.0165517 0
-3.3026755 8.9502201 -2.0052178 0
-3.3761585 9.1493587 -1.9869384 0
-3.4576132 9.3701 -1.9706262 0
-3.5445049 9.6055756 -1.954445 0
-3.6335988 9.8470201 -1.9363749 0
-3.7058372 10.042785 -1.9064949 0
-3.7943623 10.282687 -1.8821814 0
-3.9029543 10.57697 -1.8643456 0
-4.0032144 10.848674 -1.8388432 0
-4.1185036 11.161107 -1.8164408 0
-4.210865 11.411407 -1.7802722 0
-4.332037 11.73978 -1.7525272 0
-4.4651289 12.100458 -1.7251101 0
-4.5694432 12.383149 -1.6823918 0
-4.6769161 12.674399 -1.6371223 0
-4.7754335 12.941381 -1.5851111 0
-4.9105363 13.307508 -1.5411386 0
-5.0466418 13.676353 -1.492698 0
-5.1900692 14.06504 -1.4414924 0
-5.3036485 14.372839 -1.3774743 0
-5.4477406 14.763327 -1.3168472 0
-5.6128154 15.210678 -1.2558321 0
-5.7704611 15.637897 -1.1874517 0
-6.1489077 16.663485 -1.1549757 0
-6.633276 17.976118 -1.1270062 0
-7.0114317 19.000916 -1.0656153 0
-7.3390045 19.888634 -0.98397607 0
-7.8704362 21.32881 -0.91436726 0
-6.8395305 18.535065 -0.67225033 0
-6.7922034 18.406809 -0.54614741 0
-6.7629681 18.327581 -0.42290977 0
-5.958941 16.148674 -0.26614493 0
-5.9842682 16.217312 -0.16035751 0
-6.0369892 16.360186 -0.053922042 0
-6.0955682 16.518934 0.054445263 0
-5.9979362 16.254353 0.16072376 0
-6.062151 16.428373 0.27075464 0
-6.1506352 16.668165 0.38461867 0
-6.1362209 16.629103 0.49340114 0
-6.1301303 16.612597 0.6025241 0
-6.1768336 16.739162 0.71760887 0
-6.2284489 16.87904 0.83507848 0
-6.2500987 16.93771 0.94990593 0
-6.4612927 17.510044 1.2136521 0
-6.385468 17.30456 1.3140085 0
-6.3347416 17.167091 1.4173585 0
-6.3114128 17.10387 1.6392128 0
-0.30443612 0.79479051 -0.3525376 1
-0.31150165 0.81323647 -0.35442594 1
-0.31387535 0.81943345 -0.35081708 1
-2.1118414 5.5133791 -2.3181522 0
-2.1475782 5.6066761 -2.3146296 0
-2.1741078 5.6759372 -2.3001502 0
-2.2062991 5.7599792 -2.2907014 0
-2.2407811 5.8500009 -2.2825186 0
-2.2852857 5.9661889 -2.2831964 0
-2.3176568 6.0506997 -2.2704494 0
-2.3575177 6.1547651 -2.263833 0
-2.3944709 6.2512383 -2.2531328 0
-2.4332149 6.3523874 -2.2428529 0
-2.4742448 6.4595037 -2.233341 0
-2.514776 6.5653186 -2.2220104 0
-2.5626404 6.6902781 -2.2156656 0
-2.6017818 6.7924647 -2.2003164 0
-2.6510761 6.9211569 -2.1920681 0
-2.7023311 7.0549679 -2.1837332 0
-2.7488346 7.1763749 -2.1699083 0
-2.8021166 7.3154778 -2.1597507 0
-2.8473706 7.4336228 -2.1417499 0
-2.9024732 7.5774784 -2.1294723 0
-2.9545484 7.7134309 -2.1131668 0
-3.012475 7.8646603 -2.0991929 0
-3.0839086 8.0511513 -2.0924261 0
-3.1372159 8.190321 -2.0712461 0
-3.2066741 8.3716545 -2.058656 0
-3.2762015 8.5531702 -2.0437465 0
-3.3527739 8.7530775 -2.0307441 0
-3.4080157 8.8972969 -2.0025983 0
-3.4912992 9.1147251 -1.9885899 0
-3.5723076 9.3262138 -1.9704857 0
-3.6597869 9.554595 -1.9530811 0
-3.7533019 9.7987347 -1.9358093 0
-3.8424649 10.031512 -1.9131799 0
-3.9227448 10.241098 -1.8832558 0
-4.0347495 10.533509 -1.865289 0
-4.1412206 10.811473 -1.8410298 0
-4.2580156 11.11639 -1.8175471 0
-4.3777857 11.429072 -1.7912911 0
-4.4791789 11.69378 -1.7537498 0
-4.6140656 12.045928 -1.7252944 0
-4.7260332 12.338242 -1.6840587 0
-4.8460178 12.651485 -1.6417354 0
-4.9444766 12.908531 -1.5884144 0
-5.0792055 13.260267 -1.5427841 0
-5.2197042 13.627068 -1.4942111 0
-5.3643804 14.004772 -1.4419671 0
-5.4757128 14.295428 -1.3764044 0
-5.6293693 14.696578 -1.3169682 0
-5.7870331 15.108191 -1.2531509 0
-6.0461478 15.784662 -1.2041506 0
-6.3678927 16.62464 -1.1576231 0
-6.8505549 17.884726 -1.1264725 0
-7.2412081 18.904602 -1.0651269 0
-7.5861483 19.805136 -0.98438567 0
-8.1185236 21.195007 -0.91284192 0
-7.0956049 18.524477 -0.67497981 0
-7.0412211 18.382496 -0.54795355 0
-6.1055803 15.939822 -0.36951658 0
-6.1541929 16.066734 -0.26602158 0
-6.2022467 16.192188 -0.16085105 0
-6.1263137 15.993951 -0.052959241 0
-6.214047 16.222996 0.053717658 0
-6.300312 16.448208 0.1633943 0
-6.1447353 16.042044 0.26561275 0
-6.237803 16.285015 0.37751886 0
-6.2740283 16.379587 0.48824999 0
-6.2853751 16.409212 0.59790546 0
-6.3262873 16.51602 0.71132386 0
-6.3811889 16.659351 0.82802904 0
-6.3211818 16.502691 0.92979795 0
-6.3749661 16.643106 1.0482689 0
-6.4738231 16.901192 1.1768801 0
-6.7026143 17.498497 1.3348924 0
-6.4304914 16.788067 1.3924884 0
-6.389801 16.681835 1.4948682 0
-6.3881736 16.677588 1.6057652 0
-6.4155226 16.748987 1.7245185 0
-6.4477916 16.833231 1.8457676 0
-6.4753032 16.905056 1.9668421 0
-6.7087469 17.514507 2.1551869 0
-0.31450117 0.79178202 -0.35289183 1
-0.32470068 0.81746012 -0.35797974 1
-0.32752174 0.82456237 -0.35471025 1
-2.1814215 5.4919043 -2.320226 0
-2.2114341 5.5674634 -2.3094926 0
-2.2486422 5.6611376 -2.3051836 0
-2.2873609 5.758615 -2.3011706 0
-2.3253534 5.8542643 -2.2951648 0
-2.358197 5.9369507 -2.2829318 0
-2.39077 6.0189562 -2.2693975 0
-2.4327068 6.1245351 -2.2635455 0
-2.4714198 6.2219982 -2.2533767 0
-2.5115569 6.3230467 -2.243228 0
-2.5674968 6.4638801 -2.2455997 0
-2.6085608 6.5672617 -2.2333553 0
-2.6477125 6.6658292 -2.2181833 0
-2.7016912 6.8017249 -2.2139101 0
-2.7435856 6.9071975 -2.1981659 0
-2.7940269 7.0341873 -2.1877701 0
-2.8412082 7.1529708 -2.1732309 0
-2.897491 7.2946668 -2.1639616 0
-2.9552438 7.4400644 -2.1539128 0
-3.0066216 7.5694122 -2.1374335 0
-3.0482707 7.6742668 -2.1125467 0
-3.1118429 7.8343148 -2.1011477 0
-3.1783199 8.0016766 -2.0895672 0
-3.2436903 8.1662512 -2.075089 0
-3.3071473 8.3260098 -2.057276 0
-3.3807693 8.5113592 -2.0435345 0
-3.4581587 8.706193 -2.0295787 0
-3.5385501 8.9085846 -2.0147803 0
-3.6225193 9.1199837 -1.9993044 0
-3.6901841 9.2903357 -1.9723434 0
-3.7750988 9.5041151 -1.9521036 0
-3.8703904 9.7440195 -1.9342557 0
-3.9709182 9.9971056 -1.9157856 0
-4.0683384 10.24237 -1.8925459 0
-4.1600385 10.473232 -1.8635325 0
-4.2688661 10.747213 -1.8388869 0
-4.3914051 11.055716 -1.8163183 0
-4.5151644 11.36729 -1.7901741 0
-4.6553187 11.72014 -1.7661545 0
-4.7620473 11.988838 -1.7253739 0
-4.8850408 12.298484 -1.6867034 0
-5.0171704 12.63113 -1.6469752 0
-5.1504674 12.966717 -1.6032463 0
-5.2549167 13.229675 -1.5466257 0
-5.3897953 13.569242 -1.4950247 0
-5.5302038 13.922733 -1.440413 0
-5.6468472 14.216392 -1.375376 0
-5.808321 14.622916 -1.3166679 0
-5.9887595 15.077185 -1.2565923 0
-6.2592077 15.75806 -1.2079014 0
-6.5891786 16.588787 -1.1606807 0
-7.0715246 17.803133 -1.126725 0
-7.4696279 18.805389 -1.0646316 0
-7.8135691 19.671289 -0.98243421 0
-8.3647366 21.058897 -0.91134077 0
-7.3607559 18.531296 -0.67847496 0
-6.2597642 15.75946 -0.4720237 0
-6.2925072 15.841893 -0.36901224 0
-6.342011 15.966523 -0.26563346 0
-6.3928781 16.094585 -0.16065022 0
-6.2836289 15.819541 -0.052633602 0
-6.3341427 15.946713 0.053056721 0
-6.3019028 15.865547 0.15836404 0
-6.3440971 15.971775 0.26572084 0
-6.3997021 16.111765 0.3752985 0
-6.4108233 16.139763 0.48341444 0
-6.4575844 16.257488 0.59522545 0
-6.4973989 16.357725 0.70789373 0
-6.5387182 16.461748 0.82214165 0
-6.5932221 16.598967 0.93971914 0
-6.6334777 16.700314 1.0569297 0
-6.5391121 16.46274 1.1518614 0
-6.57477 16.552513 1.2687985 0
-6.5299735 16.439734 1.3701525 0
-6.5546417 16.501839 1.4858487 0
-6.5778437 16.560251 1.6021345 0
-6.607688 16.635386 1.7210577 0
-6.6332889 16.699839 1.8399457 0
-6.6646686 16.778839 1.9615437 0
-6.6344976 16.702881 2.0651977 0
-6.661139 16.769953 2.1866372 0
-6.6840372 16.827602 2.3078597 0
-6.7141356 16.903376 2.4326499 0
-6.6970553 16.860376 2.5407572 0
-6.7737861 17.053551 2.6856735 0
-0.32531866 0.79054254 -0.35409552 1
-0.3312003 0.80483526 -0.35420775 1
-0.33735812 0.81979913 -0.3544189 1
-2.244899 5.4552298 -2.3162189 0
-2.2874484 5.5586276 -2.3173201 0
-2.3224866 5.6437721 -2.3095667 0
-2.3630972 5.7424583 -2.3061516 0
-2.39574 5.8217821 -2.2938066 0
-2.4289439 5.9024696 -2.2809851 0
-2.4725752 6.0084958 -2.2767451 0
-2.5094368 6.0980716 -2.2649982 0
-2.5530589 6.2040758 -2.2580848 0
-2.5958431 6.308044 -2.2490594 0
-2.6419542 6.4200964 -2.2415056 0
-2.6819718 6.5173416 -2.2274256 0
-2.7351859 6.6466546 -2.2228267 0
-2.7803214 6.7563367 -2.2100976 0
-2.8331904 6.8848109 -2.201962 0
-2.8824914 7.0046148 -2.189431 0
-2.9364469 7.1357303 -2.1787987 0
-2.9855275 7.2549992 -2.1629212 0
-3.0426486 7.393806 -2.1511898 0
-3.1023967 7.5389977 -2.1394558 0
-3.1624599 7.6849542 -2.1260326 0
-3.2190514 7.8224745 -2.108429 0
-3.2843387 7.9811268 -2.0945888 0
-3.3388572 8.1136093 -2.0719883 0
-3.403785 8.2713881 -2.053966 0
-3.4883406 8.4768629 -2.0453963 0
-3.5591593 8.6489563 -2.0262852 0
-3.6468554 8.8620625 -2.0142481 0
-3.7269356 9.0566616 -1.9953185 0
-3.8237092 9.2918272 -1.9824921 0
-3.8924541 9.4588814 -1.9524961 0
-3.9899702 9.6958513 -1.934287 0
-4.08673 9.9309826 -1.9125994 0
-4.2004523 10.207334 -1.8954726 0
-4.3126965 10.480093 -1.8740476 0
-4.4029007 10.699295 -1.8398123 0
-4.526526 10.999711 -1.8161246 0
-4.6569285 11.316596 -1.7910736 0
-4.7968369 11.656582 -1.765332 0
-4.9141526 11.941666 -1.7271509 0
-5.0459971 12.262055 -1.6900893 0
-5.1744289 12.574151 -1.6477176 0
-5.3040233 12.889072 -1.6015892 0
-5.4090538 13.144303 -1.5443043 0
-5.550169 13.487222 -1.4933943 0
-5.7019429 13.85604 -1.440658 0
-5.8577504 14.234661 -1.3840075 0
-5.9844227 14.542481 -1.3159518 0
-6.192029 15.046977 -1.2603252 0
-6.4756603 15.736217 -1.212239 0
-6.8103929 16.549635 -1.1637127 0
-7.2796807 17.690031 -1.1251471 0
-7.7039957 18.72114 -1.0651445 0
-8.0539255 19.571489 -0.9823218 0
-8.6073465 20.916334 -0.90968281 0
-9.2380724 22.449032 -0.82600921 0
-6.4568238 15.690443 -0.47229886 0
-6.4993839 15.793866 -0.36972716 0
-6.5493202 15.915215 -0.26609957 0
-6.5870147 16.006815 -0.16057047 0
-6.5097651 15.819094 -0.05289444 0
-6.5618038 15.94555 0.053317275 0
-6.5249786 15.856062 0.15905821 0
-6.5616975 15.945292 0.26660243 0
-6.6162524 16.077864 0.37637541 0
-6.6707573 16.210314 0.48794749 0
-6.6314316 16.11475 0.59294009 0
-6.6672764 16.201855 0.70464295 0
-6.7157698 16.319696 0.8191095 0
-6.7692285 16.449604 0.9359048 0
-6.6615314 16.187895 1.029606 0
-6.7204137 16.33098 1.1483377 0
-6.7803245 16.476568 1.269272 0
-6.7277689 16.348854 1.3693695 0
-6.7564054 16.418442 1.4857079 0
-6.7826104 16.482122 1.6025236 0
-6.8092237 16.546795 1.7204245 0
-6.8186316 16.569656 1.8347018 0
-6.8446445 16.63287 1.9541706 0
-6.8777275 16.713263 2.0767808 0
-6.8360295 16.611933 2.1768289 0
-6.871366 16.697803 2.3014722 0
-6.9016562 16.77141 2.425688 0
-6.9277091 16.834721 2.5495355 0
-6.8677249 16.688955 2.641355 0
-6.8948569 16.754889 2.7663419 0
-6.9447432 16.876114 2.9019561 0
-6.9408445 16.86664 3.0160882 0
-6.9650126 16.925369 3.1429927 0
-6.9947929 16.997738 3.2735798 0
-0.33589762 0.78855669 -0.35502926 1
-0.33984402 0.79782134 -0.35293338 1
-0.34805647 0.81710094 -0.35507587 1
-2.3235013 5.4546757 -2.3279383 0
-2.3503361 5.5176725 -2.31212 0
-2.3875225 5.6049719 -2.3055284 0
-2.4300368 5.7047791 -2.3028457 0
-2.4698925 5.7983446 -2.2963645 0
-2.512198 5.8976617 -2.2908916 0
-2.5452375 5.9752254 -2.2758255 0
-2.5932379 6.0879121 -2.2728968 0
-2.6318936 6.1786604 -2.2604427 0
-2.6742802 6.2781672 -2.2499619 0
-2.7219183 6.3900037 -2.2425153 0
-2.7571094 6.4726181 -2.2235594 0
-2.8157074 6.6101837 -2.2220409 0
-2.8590498 6.7119346 -2.2069063 0
-2.914907 6.8430653 -2.1999078 0
-2.9707272 6.9741096 -2.1911483 0
-3.0189033 7.0872083 -2.1751533 0
-3.0768371 7.2232141 -2.164561 0
-3.1342242 7.3579369 -2.1518042 0
-3.2017932 7.5165625 -2.1440997 0
-3.2512903 7.6327624 -2.1224935 0
-3.3194551 7.7927866 -2.111269 0
-3.3916249 7.9622135 -2.1004114 0
-3.4581866 8.118474 -2.0839326 0
-3.5281246 8.2826614 -2.0673823 0
-3.5837812 8.4133215 -2.0405433 0
-3.6661317 8.6066484 -2.0267816 0
-3.7530928 8.8107986 -2.0129337 0
-3.8429868 9.0218353 -1.9979057 0
-3.931385 9.2293596 -1.9793289 0
-4.031239 9.4637775 -1.9635906 0
-4.1099772 9.6486244 -1.9348015 0
-4.2134185 9.8914652 -1.9148221 0
-4.3239546 10.150959 -1.8947343 0
-4.4476666 10.441388 -1.8767643 0
-4.5635352 10.713402 -1.8517476 0
-4.6589742 10.937455 -1.8151672 0
-4.7956781 11.258383 -1.7910578 0
-4.9448142 11.608497 -1.7671245 0
-5.092586 11.955407 -1.7380639 0
-5.2013888 12.210834 -1.691717 0
-5.3271718 12.506124 -1.6472625 0
-5.4637313 12.826712 -1.6020675 0
-5.5683656 13.072352 -1.5437788 0
-5.7062726 13.396104 -1.4909617 0
-5.8628936 13.763789 -1.4384533 0
-6.0331125 14.163397 -1.3841869 0
-6.158143 14.45692 -1.3149621 0
-6.3949723 15.012902 -1.263962 0
-6.6911535 15.70822 -1.2163286 0
-7.0254469 16.493011 -1.1657175 0
-7.4989972 17.604723 -1.125501 0
-7.9271364 18.609827 -1.0642767 0
-8.4240932 19.776487 -0.99773461 0
-8.855485 20.789227 -0.90882182 0
-9.4975548 22.296556 -0.82463366 0
-6.6730781 15.665787 -0.4739908 0
-6.703269 15.736663 -0.37028965 0
-6.7662029 15.884408 -0.26695538 0
-6.7043862 15.739285 -0.15870178 0
-6.7400908 15.823106 -0.053180963 0
-6.6882091 15.701308 0.052771602 0
-6.7457957 15.836499 0.15968199 0
-6.779408 15.915407 0.26747638 0
-6.8456364 16.070887 0.37815404 0
-6.8973618 16.192318 0.48992172 0
-6.9426394 16.298611 0.60280085 0
-6.8255334 16.023693 0.70049173 0
-6.8690515 16.125854 0.81355828 0
-6.8626585 16.110847 0.92136276 0
-6.9045801 16.209263 1.036287 0
-6.9482489 16.311781 1.1529082 0
-6.9258337 16.259159 1.2589892 0
-6.9526191 16.322041 1.3741806 0
-6.9882665 16.405725 1.4922203 0
-6.9646845 16.350365 1.5979189 0
-7.0023251 16.43873 1.7180114 0
-7.0305295 16.504942 1.8369697 0
-7.0610366 16.576563 1.9576082 0
-7.0953932 16.657217 2.0805008 0
-7.1154013 16.704189 2.2002168 0
-7.0556459 16.563908 2.2948017 0
-7.1066031 16.683535 2.4254339 0
-7.0676918 16.592186 2.5257757 0
-7.1010494 16.670496 2.6520526 0
-7.1322384 16.743715 2.7787673 0
-7.1670055 16.825336 2.9081588 0
-7.1505227 16.78664 3.0172775 0
-7.1851654 16.867968 3.1485021 0
-0.34077266 0.77348268 -0.35010263 1
-0.33900583 0.76947236 -0.3422108 1
-0.3554638 0.80682856 -0.35248473 1
-0.36947098 0.83862191 -0.35981753 1
-2.422519 5.4986115 -2.3164401 0
-2.4640832 5.5929537 -2.3128734 0
-2.5004022 5.6753902 -2.3032196 0
-2.5454259 5.7775846 -2.3003647 0
-2.5729899 5.8401494 -2.280669 0
-2.6197724 5.9463358 -2.2769194 0
-2.6642172 6.0472164 -2.2697625 0
-2.708694 6.148169 -2.261302 0
-2.7565417 6.2567735 -2.2542717 0
-2.7961378 6.3466482 -2.239197 0
-2.8497782 6.468401 -2.2339799 0
-2.907027 6.5983434 -2.2299082 0
-2.9548702 6.7069378 -2.2170424 0
-3.0133057 6.8395739 -2.2105303 0
-3.0465796 6.9150987 -2.1842129 0
-3.1081958 7.054955 -2.17682 0
-3.1581657 7.168376 -2.1596019 0
-3.2247992 7.3196201 -2.1520324 0
-3.2852759 7.4568896 -2.1384397 0
-3.361593 7.6301131 -2.13309 0
-3.4143028 7.7497535 -2.1108253 0
-3.4810162 7.9011793 -2.095444 0
-3.5538189 8.0664263 -2.0816321 0
-3.6269341 8.2323828 -2.0658083 0
-3.7132654 8.4283361 -2.0551038 0
-3.7786312 8.5767031 -2.0305178 0
-3.8608091 8.7632303 -2.0127599 0
-3.9500692 8.9658308 -1.996109 0
-4.0522532 9.1977673 -1.9830898 0
-4.1440368 9.4060965 -1.9620471 0
-4.2510023 9.6488867 -1.9451889 0
-4.3326221 9.8341465 -1.9138949 0
-4.4484563 10.097066 -1.8947417 0
-4.5692868 10.371325 -1.8741285 0
-4.6927004 10.651448 -1.8508731 0
-4.7998652 10.894691 -1.8177277 0
-4.9444256 11.222813 -1.7949357 0
-5.086906 11.546213 -1.7670317 0
-5.231914 11.875352 -1.7356472 0
-5.3481221 12.139119 -1.6907647 0
-5.4753542 12.427909 -1.6457042 0
-5.6134882 12.741445 -1.599918 0
-5.7656412 13.086801 -1.5537401 0
-5.8769312 13.339405 -1.4925815 0
-6.034009 13.695939 -1.4390079 0
-6.2068257 14.088197 -1.3841919 0
-6.3372536 14.384241 -1.31534 0
-6.5989442 14.978224 -1.2677782 0
-6.9074016 15.678358 -1.2205009 0
-7.3795524 16.750042 -1.1902078 0
-7.7185569 17.51951 -1.126036 0
-8.1654387 18.53384 -1.0655928 0
-8.6494226 19.632381 -0.99575496 0
-9.0970993 20.648514 -0.90749198 0
-9.7706518 22.177336 -0.82460552 0
-6.8824182 15.621651 -0.47518006 0
-6.9221845 15.711912 -0.37168202 0
-6.8775873 15.610685 -0.26375654 0
-6.9190559 15.704811 -0.1592 0
-6.9670439 15.813734 -0.053433355 0
-6.9162526 15.698447 0.053043813 0
-6.9777718 15.838083 0.16055098 0
-7.0240312 15.943083 0.26937267 0
-7.0829897 16.076906 0.38031635 0
-7.1506171 16.230406 0.49369723 0
-7.0132785 15.918676 0.59189385 0
-7.1041846 16.125015 0.70868641 0
-7.0349407 15.967845 0.80988955 0
-7.0782022 16.06604 0.9237079 0
-7.124186 16.170414 1.0393251 0
-7.2302217 16.411093 1.1661232 0
-7.2916498 16.550522 1.2883956 0
-7.1759896 16.287996 1.3786392 0
-7.1763277 16.288763 1.4894955 0
-7.246736 16.448576 1.6161035 0
-7.273293 16.508856 1.7345558 0
-7.2659731 16.492241 1.8453605 0
-7.2947888 16.557646 1.9658188 0
-7.2846012 16.534523 2.0762072 0
-7.3270164 16.630796 2.2022505 0
-7.3897324 16.773148 2.3362029 0
-7.5493784 17.135511 2.5044479 0
-7.5102491 17.046696 2.6088252 0
-0.35890853 0.78823411 -0.35875008 1
-0.3561615 0.78220105 -0.34979296 1
-0.36499488 0.80160087 -0.35213503 1
-0.37644872 0.82675576 -0.35668543 1
-2.5031278 5.4973636 -2.3287051 0
-2.5376337 5.5731454 -2.3174105 0
-2.5680711 5.6399918 -2.3014951 0
-2.6030934 5.716908 -2.2887776 0
-2.6545799 5.8299823 -2.2892728 0
-2.6957469 5.920393 -2.2795062 0
-2.7328994 6.0019875 -2.2652285 0
-2.7936735 6.1354594 -2.2690907 0
-2.8371353 6.2309103 -2.2573521 0
-2.8888369 6.3444567 -2.2507865 0
-2.9344161 6.4445581 -2.2380381 0
-2.9884853 6.5633044 -2.2303174 0
-3.0433941 6.6838951 -2.2216282 0
-3.0950956 6.7974415 -2.2090466 0
-3.1448421 6.9066949 -2.1936071 0
-3.2008615 7.0297246 -2.1810145 0
-3.2652018 7.1710286 -2.172333 0
-3.3267472 7.3061948 -2.1599491 0
-3.3745499 7.4111786 -2.1370692 0
-3.4362206 7.5466199 -2.1214006 0
-3.5116234 7.7122192 -2.1122036 0
-3.5767038 7.8551483 -2.0947421 0
-3.6530533 8.0228271 -2.0818155 0
-3.7308342 8.1936502 -2.0674446 0
-3.8228135 8.3956547 -2.0584412 0
-3.9005754 8.5664349 -2.039288 0
-3.9694736 8.7177486 -2.0133724 0
-4.0632334 8.9236631 -1.9976935 0
-4.1602464 9.1367235 -1.9808081 0
-4.261229 9.3585014 -1.9629006 0
-4.3666172 9.5899544 -1.9439859 0
-4.4524941 9.7785568 -1.9135869 0
-4.5733948 10.04408 -1.8952082 0
-4.6951323 10.311439 -1.8735976 0
-4.8288932 10.605205 -1.8530153 0
-4.9722939 10.92014 -1.8320365 0
-5.0741415 11.143818 -1.7921453 0
-5.2177486 11.459208 -1.763402 0
-5.3680067 11.789205 -1.7325727 0
-5.4943428 12.066664 -1.6899551 0
-5.6285005 12.3613 -1.6459241 0
-5.777504 12.688541 -1.6020746 0
-5.9210162 13.003722 -1.5524033 0
-6.0460052 13.278223 -1.4939413 0
-6.2001815 13.616824 -1.4385971 0
-6.3752456 14.0013 -1.3832518 0
-6.5226779 14.32509 -1.3171659 0
-6.8076181 14.950875 -1.2724525 0
-7.1210117 15.63915 -1.2241727 0
-7.6087847 16.710396 -1.1939487 0
-7.9325237 17.421391 -1.1259137 0
-8.3935061 18.4338 -1.0656945 0
-8.8891897 19.522417 -0.9956463 0
-9.3424692 20.517908 -0.90673232 0
-7.0441036 15.470244 -0.57839698 0
-7.0953517 15.582795 -0.47661605 0
-7.1306863 15.660397 -0.37250945 0
-7.1801434 15.769013 -0.26790312 0
-7.1283617 15.655292 -0.15957451 0
-7.1735392 15.75451 -0.053527247 0
-7.1653914 15.736616 0.053466454 0
-7.2312765 15.881313 0.16187835 0
-7.2765374 15.980715 0.27149975 0
-7.3377509 16.115152 0.38332656 0
-7.2433376 15.907802 0.48655671 0
-7.3063436 16.046175 0.59992969 0
-7.4165974 16.288313 0.71981704 0
-7.2367268 15.893283 0.81055987 0
-7.3435044 16.127787 0.93237931 0
-7.4393859 16.338362 1.0559195 0
-7.4921741 16.454296 1.1756505 0
-7.4467044 16.354435 1.2801625 0
-7.4448442 16.350349 1.3915602 0
-7.4890637 16.447464 1.5123142 0
-7.5429831 16.565882 1.6366185 0
-7.702661 16.916567 1.7872099 0
-7.6088624 16.710566 1.8801163 0
-7.6270337 16.750475 1.999696 0
-0.36612764 0.77856117 -0.35636973 1
-0.37041411 0.78767627 -0.3542515 1
-0.37411442 0.79554492 -0.35146898 1
-0.38432494 0.81725729 -0.35459957 1
-2.5642076 5.452723 -2.3229759 0
-2.6051788 5.5398474 -2.31671 0
-2.6430349 5.620347 -2.3065665 0
-2.6874723 5.7148423 -2.3010068 0
-2.7306094 5.8065724 -2.2930915 0
-2.7798536 5.9112883 -2.2889886 0
-2.8197203 5.9960642 -2.2759068 0
-2.8714159 6.1059933 -2.2710795 0
-2.9175496 6.2040954 -2.260464 0
-2.9651048 6.3052206 -2.2496319 0
-3.0176277 6.4169092 -2.241153 0
-3.0723233 6.5332179 -2.2327623 0
-3.1218123 6.6384554 -2.2191162 0
-3.1756728 6.7529879 -2.2071235 0
-3.2360995 6.8814836 -2.198072 0
-3.2923925 7.0011897 -2.184557 0
-3.3570859 7.1387587 -2.1748979 0
-3.4165242 7.2651525 -2.1600721 0
-3.4854391 7.4116979 -2.149415 0
-3.5544243 7.5583935 -2.1368349 0
-3.6031308 7.6619663 -2.1104152 0
-3.6852264 7.8365412 -2.1017053 0
-3.7566044 7.9883246 -2.0846913 0
-3.8408029 8.1673708 -2.0725739 0
-3.9171908 8.3298073 -2.0539513 0
-4.0076437 8.5221529 -2.0403235 0
-4.1009746 8.7206192 -2.0255284 0
-4.1734066 8.8746433 -1.998057 0
-4.2707772 9.0817003 -1.9801148 0
-4.3857088 9.3260994 -1.9672669 0
-4.495142 9.5588055 -1.948729 0
-4.6090522 9.801033 -1.9289302 0
-4.7003946 9.9952698 -1.8967609 0
-4.8283257 10.267313 -1.8762259 0
-4.9610324 10.54951 -1.8538027 0
-5.1019449 10.849157 -1.8305147 0
-5.2078924 11.074452 -1.7911531 0
-5.3566599 11.390801 -1.7628782 0
-5.5034933 11.70304 -1.7297244 0
-5.6725054 12.06244 -1.6990041 0
-5.7906928 12.313762 -1.6489508 0
-5.9345112 12.619589 -1.6024611 0
-6.0845294 12.938599 -1.5534433 0
-6.2080741 13.201313 -1.4937639 0
-6.3744588 13.555126 -1.4402509 0
-6.5479846 13.924124 -1.3834772 0
-6.7907796 14.440422 -1.3353473 0
-7.019825 14.927481 -1.2777113 0
-7.341979 15.612534 -1.2290632 0
-7.8270841 16.644096 -1.195998 0
-8.1478367 17.32617 -1.1261498 0
-8.5948792 18.276793 -1.0626472 0
-9.1013994 19.353895 -0.99268425 0
-9.582675 20.377317 -0.90565813 0
-10.292379 21.886486 -0.82295507 0
-7.2971349 15.517173 -0.47731727 0
-7.3424015 15.613431 -0.37351164 0
-7.3875613 15.709463 -0.26841444 0
-7.4523883 15.847316 -0.16245359 0
-7.3615651 15.654182 -0.05348989 0
-7.4250093 15.789095 0.05395088 0
-7.4832602 15.912964 0.16312656 0
-7.5373373 16.027958 0.27385628 0
-7.6022844 16.166065 0.38673201 0
-7.5987782 16.158609 0.49704826 0
-7.6977606 16.369093 0.61549532 0
-7.8182745 16.625364 0.73890465 0
-7.6322007 16.229683 0.83243966 0
-7.6489692 16.265341 0.94569755 0
-7.7161889 16.408281 1.0664897 0
-7.7725883 16.528212 1.1876708 0
-12.66527 26.932377 3.0474706 0
-12.479416 26.537163 3.1861238 0
-12.337388 26.235144 3.331392 0
-12.165919 25.87052 3.4643526 0
-0.37017211 0.76266748 -0.35115167 1
-0.3805331 0.78401434 -0.35468221 1
-0.3824819 0.78802943 -0.35020006 1
-0.39363092 0.81099981 -0.35395789 1
-0.39964485 0.82339036 -0.35284871 1
-2.6730807 5.5073619 -2.3166955 0
-2.7098238 5.5830636 -2.3047664 0
-2.7612302 5.6889768 -2.3040893 0
-2.8107083 5.7909164 -2.300384 0
-2.85218 5.8763614 -2.2888718 0
-2.8976202 5.9699817 -2.2793586 0
-2.9420726 6.0615673 -2.2678399 0
-2.9938934 6.168334 -2.2606764 0
-3.0497456 6.2834063 -2.2550581 0
-3.0979378 6.3826971 -2.2423389 0
-3.1491067 6.4881206 -2.2304153 0
-3.2015507 6.5961714 -2.2179739 0
-3.2561679 6.7086992 -2.2055681 0
-3.3206148 6.8414798 -2.1981704 0
-3.3774204 6.9585166 -2.1840353 0
-3.4477417 7.1034002 -2.1768773 0
-3.5105975 7.2329021 -2.1631546 0
-3.5794342 7.3747263 -2.1512947 0
-3.6435974 7.5069222 -2.1347885 0
-3.7216413 7.6677165 -2.1244433 0
-3.7772849 7.7823596 -2.0994723 0
-3.8539119 7.9402347 -2.0843511 0
-3.930865 8.0987816 -2.0672779 0
-4.0210905 8.2846737 -2.0548592 0
-4.1107531 8.4694052 -2.0396426 0
-4.2071948 8.6681051 -2.0251942 0
-4.2812095 8.8205976 -1.9975903 0
-4.3885078 9.041666 -1.9830018 0
-4.502871 9.2772884 -1.9685016 0
-4.6049085 9.4875164 -1.9455923 0
-4.7277851 9.7406797 -1.9283478 0
-4.8243861 9.9397078 -1.8973311 0
-4.9622846 10.223821 -1.8792866 0
-5.0878096 10.482441 -1.8528707 0
-5.2313366 10.778151 -1.8292491 0
-5.3320293 10.985608 -1.7872529 0
-5.4815531 11.293672 -1.7581447 0
-5.6433773 11.62708 -1.7286232 0
-5.8148932 11.980454 -1.6973993 0
-5.9334989 12.224818 -1.6466861 0
-6.0820222 12.530822 -1.600565 0
-6.2409234 12.858207 -1.5528876 0
-6.3628073 13.109324 -1.4920955 0
-6.5401688 13.474744 -1.4401462 0
-6.7281389 13.862019 -1.385422 0
-6.9924207 14.40652 -1.340062 0
-7.2242785 14.884218 -1.281515 0
-7.5644093 15.584991 -1.2341241 0
-8.0297327 16.543699 -1.1957883 0
-8.3678255 17.240274 -1.1271695 0
-8.7852869 18.100372 -1.0585907 0
-9.3104553 19.182381 -0.98968434 0
-9.8219881 20.236292 -0.90468973 0
-10.558727 21.754202 -0.82280082 0
-8.5029774 17.518728 -0.54206151 0
-8.4470758 17.403555 -0.41878894 0
-7.5989332 15.656121 -0.26907921 0
-7.6565175 15.774763 -0.16266267 0
-7.6096005 15.6781 -0.053887267 0
-7.6722751 15.807228 0.054331094 0
-7.7353563 15.937195 0.16433761 0
-7.7918291 16.053545 0.27590969 0
-7.8439217 16.160872 0.38888574 0
-7.9718881 16.424522 0.50820476 0
-8.0601997 16.606472 0.62810022 0
-7.8264465 16.124868 0.72088319 0
-7.9284658 16.33506 0.84278136 0
-7.9913454 16.464611 0.962924 0
-12.961408 26.704454 1.7459378 0
-13.041989 26.870478 1.9422139 0
-13.036679 26.859537 2.4984136 0
-13.015277 26.815443 3.0521176 0
-12.820016 26.413145 3.1899197 0
-12.673889 26.11208 3.3353026 0
-0.38643017 0.77185774 -0.35754389 1
-0.39139074 0.781766 -0.35581541 1
-0.39671367 0.7923981 -0.35428256 1
-0.40133899 0.8016367 -0.35199869 1
-0.41284779 0.82462442 -0.35552612 1
-2.7415669 5.4760208 -2.3175173 0
-2.7954164 5.5835795 -2.318994 0
-2.8265162 5.645699 -2.3004639 0
-2.8756847 5.7439084 -2.2955837 0
-2.9180491 5.828527 -2.2840436 0
-2.9734502 5.9391856 -2.2813878 0
-3.0230012 6.0381589 -2.2728176 0
-3.0692351 6.130507 -2.260474 0
-3.1193085 6.2305241 -2.2496748 0
-3.1748469 6.3414564 -2.2413962 0
-3.2326241 6.456861 -2.233165 0
-3.2910941 6.5736494 -2.2238402 0
-3.346879 6.6850743 -2.211164 0
-3.400331 6.7918401 -2.1954892 0
-3.4684448 6.9278903 -2.1876438 0
-3.534812 7.0604529 -2.1768715 0
-3.5998702 7.1904001 -2.1635187 0
-3.6673694 7.3252239 -2.1498468 0
-3.7458012 7.4818835 -2.1406047 0
-3.8147852 7.6196728 -2.1239684 0
-3.8915908 7.7730846 -2.1097202 0
-3.96015 7.9100251 -2.089046 0
-4.0396905 8.0688992 -2.0721734 0
-4.1246986 8.2386961 -2.0558796 0
-4.2167988 8.422657 -2.0407176 0
-4.3237953 8.6363726 -2.0300486 0
-4.4229488 8.8344221 -2.0128858 0
-4.5078263 9.0039568 -1.9867382 0
-4.6101413 9.2083216 -1.9657477 0
-4.7268081 9.4413519 -1.9478973 0
-4.8557639 9.6989298 -1.9317571 0
-4.9886408 9.9643383 -1.9135975 0
-5.0808783 10.148574 -1.8767974 0
-5.217298 10.42106 -1.8532207 0
-5.351305 10.688725 -1.8251021 0
-5.5057626 10.99724 -1.8000236 0
-5.6058707 11.197197 -1.7537245 0
-5.7713389 11.527704 -1.7242693 0
-5.948638 11.881842 -1.6936632 0
-6.0893731 12.162947 -1.6483134 0
-6.240437 12.464684 -1.6017975 0
-6.4026399 12.788668 -1.5538801 0
-6.5710635 13.125078 -1.5029715 0
-6.7084861 13.399567 -1.4408189 0
-6.8946629 13.771438 -1.3847375 0
-7.1920452 14.36543 -1.3443644 0
-7.4326315 14.845978 -1.2859944 0
-7.7885351 15.556863 -1.2393868 0
-8.2426348 16.463882 -1.1972547 0
-8.5617447 17.101276 -1.1248798 0
-8.9726505 17.92202 -1.0545329 0
-9.5343285 19.043921 -0.98851472 0
-10.065602 20.105089 -0.90428913 0
-10.821539 21.615002 -0.82250667 0
-11.940357 23.849733 -0.7424413 0
-12.708186 25.3834 -0.61452508 0
-8.507719 16.993364 -0.29383796 0
-8.3577938 16.693903 -0.17318711 0
-7.9926858 15.964634 0.16562147 0
-8.0427322 16.064598 0.27777836 0
-12.669694 25.306515 1.3135879 0
-12.746988 25.460903 1.4981213 0
-12.858608 25.683853 1.6894207 0
-13.287615 26.540754 1.9300452 0
-13.075292 26.116657 2.2622879 0
-12.639443 25.246092 2.3626127 0
-13.311835 26.589132 3.0447598 0
-12.957375 25.88113 3.1446726 0
-0.39639625 0.76802623 -0.35799986 1
-0.40246588 0.77978623 -0.35713983 1
-0.40517002 0.7850256 -0.35318714 1
-0.40898645 0.79242003 -0.35013342 1
-0.42688683 0.82710242 -0.35883048 1
-2.8115842 5.4475045 -2.3199053 0
-2.8633194 5.5477428 -2.3185577 0
-2.9079559 5.6342268 -2.310185 0
-2.9535799 5.7226243 -2.3014183 0
-2.9995086 5.8116126 -2.2916954 0
-3.0497591 5.9089737 -2.2840152 0
-3.0975561 6.0015812 -2.2732148 0
-3.1451683 6.0938311 -2.26104 0
-3.2047815 6.2093329 -2.2560818 0
-3.2555609 6.3077192 -2.2434514 0
-3.317776 6.4282618 -2.2372148 0
-3.3728836 6.5350342 -2.2246394 0
-3.4310932 6.6478167 -2.2126281 0
-3.4934855 6.768703 -2.2017298 0
-3.5505986 6.8793607 -2.1859407 0
-3.6161177 7.0063057 -2.173722 0
-3.6959846 7.1610494 -2.1681981 0
-3.763911 7.2926583 -2.1537097 0
-3.8454182 7.4505801 -2.145015 0
-3.9114001 7.5784216 -2.1257157 0
-3.9921622 7.7349 -2.1125202 0
-4.0737753 7.8930268 -2.0976276 0
-4.150187 8.0410757 -2.0779767 0
-4.2309704 8.1975956 -2.0584505 0
-4.3334885 8.3962259 -2.0470695 0
-4.426599 8.5766306 -2.0286469 0
-4.5346751 8.7860308 -2.0144126 0
-4.6214623 8.9541826 -1.9881443 0
-4.7334099 9.1710825 -1.9700743 0
-4.8583045 9.4130697 -1.9542397 0
-4.9755273 9.6401911 -1.9320976 0
-5.0998907 9.8811474 -1.9095199 0
-5.2017446 10.078492 -1.875524 0
-5.3357573 10.338144 -1.8500036 0
-5.4791584 10.615987 -1.8240482 0
-5.6271658 10.902754 -1.7957481 0
-5.7455325 11.132092 -1.7544603 0
-5.9089894 11.448793 -1.723204 0
-6.0912938 11.802012 -1.6928328 0
-6.2392488 12.088677 -1.6485211 0
-6.401588 12.403214 -1.6038927 0
-6.5617352 12.713503 -1.5544335 0
-6.7443514 13.067325 -1.505741 0
-6.8793249 13.328839 -1.4422007 0
-7.0911083 13.739174 -1.3901559 0
-7.4028258 14.343134 -1.3506945 0
-7.6476617 14.817509 -1.2915765 0
-8.0099478 15.519446 -1.2441586 0
-8.449604 16.371288 -1.1979862 0
-8.7344828 16.923246 -1.1201496 0
-9.1458101 17.720203 -1.0491958 0
-9.7379618 18.86751 -0.98549873 0
-10.303596 19.963438 -0.9035483 0
-11.122394 21.549875 -0.8251704 0
-12.364001 23.955517 -0.75041044 0
-8.4823093 16.434656 -0.40037337 0
